192.93388367 243.26364136 377.10311890 0 0 0
194.67416382 197.54296875 338.97473145 0 0 0
188.15615845 243.06811523 368.56390381 0 0 0
193.09860229 188.04684448 349.16485596 0 0 0
180.66191101 202.34243774 386.20843506 0 0 0
178.94039917 192.09123230 347.24520874 0 0 0
209.20864868 236.56799316 370.68353271 0 0 0
189.74058533 243.20899963 366.82589722 0 0 0
205.02841187 240.21058655 375.63967896 0 0 0
197.17420959 242.80119324 364.26257324 0 0 0
199.93222046 211.72138977 338.57589722 0 0 0
180.20146179 234.18478394 356.46374512 0 0 0
204.08700562 225.09086609 398.81835938 0 0 0
179.98550415 191.74267578 346.29663086 0 0 0
173.78144836 195.90011597 370.09799194 0 0 0
231.36016846 199.42539978 375.48834229 0 0 0
183.04457092 188.00798035 382.22348022 0 0 0
170.57170105 217.34545898 365.46640015 0 0 0
220.87623596 191.76242065 389.65957642 0 0 0
186.83428955 180.57760620 361.80358887 0 0 0
190.43675232 174.72879028 369.99734497 0 0 0
179.38273621 190.33334351 349.48962402 0 0 0
173.48834229 203.60404968 347.61730957 0 0 0
221.17694092 216.07501221 376.16201782 0 0 0
194.48210144 179.37054443 371.04644775 0 0 0
188.73414612 205.08749390 392.10229492 0 0 0
220.74101257 217.93124390 360.63131714 0 0 0
191.74699402 241.74421692 384.41781616 0 0 0
219.45817566 218.96316528 358.95306396 0 0 0
170.43524170 205.06292725 363.25619507 0 0 0
226.47685242 203.41683960 367.58056641 0 0 0
189.96638489 202.11378479 334.64199829 0 0 0
233.63928223 201.39820862 378.28253174 0 0 0
171.66712952 211.53961182 352.40194702 0 0 0
176.08557129 208.50975037 341.32736206 0 0 0
201.44879150 190.58334351 381.55746460 0 0 0
209.43116760 230.79943848 389.85281372 0 0 0
215.17005920 196.22514343 396.44537354 0 0 0
209.72671509 227.47329712 394.88250732 0 0 0
174.21128845 213.02723694 345.64300537 0 0 0
170.88073730 205.85295105 370.83001709 0 0 0
215.43225098 213.00270081 397.74969482 0 0 0
208.70245361 192.24601746 391.46908569 0 0 0
189.00433350 220.94216919 329.07379150 0 0 0
200.77056885 220.88214111 335.26806641 0 0 0
207.05599976 237.97055054 355.69744873 0 0 0
208.36770630 236.66748047 375.56341553 0 0 0
182.98957825 210.68356323 329.55981445 0 0 0
212.90321350 205.34062195 356.06747437 0 0 0
188.91961670 206.66221619 329.26126099 0 0 0
193.12600708 239.21920776 391.60964966 0 0 0
193.39947510 182.15512085 371.18121338 0 0 0
218.79194641 207.87481689 360.75308228 0 0 0
195.29067993 190.33668518 346.49780273 0 0 0
213.64595032 186.64343262 370.31301880 0 0 0
188.03775024 235.60806274 345.09069824 0 0 0
190.81362915 241.57055664 385.96423340 0 0 0
192.11610413 239.87135315 347.04806519 0 0 0
180.26037598 199.83346558 338.86447144 0 0 0
192.76840210 209.49200439 395.94152832 0 0 0
217.77622986 216.16879272 387.64279175 0 0 0
176.29797363 225.86268616 387.48867798 0 0 0
195.35284424 225.36761475 329.11029053 0 0 0
184.90432739 241.18649292 383.86166382 0 0 0
196.62463379 189.05880737 375.90252686 0 0 0
184.30477905 180.00749207 375.71878052 0 0 0
210.08161926 232.70463562 382.00967407 0 0 0
195.15797424 178.14015198 369.77224731 0 0 0
201.53398132 204.34124756 396.25622559 0 0 0
187.85978699 238.74546814 392.17358398 0 0 0
209.36669922 190.67562866 359.55944824 0 0 0
219.26670837 221.67459106 361.15579224 0 0 0
198.95416260 189.76795959 350.32485962 0 0 0
178.87231445 237.23242188 368.34927368 0 0 0
205.35906982 224.19506836 398.73278809 0 0 0
190.80213928 230.64190674 335.85379028 0 0 0
186.13618469 230.14387512 340.13751221 0 0 0
224.08883667 199.27890015 389.18923950 0 0 0
225.06210327 208.81184387 365.64916992 0 0 0
174.31713867 224.12998962 355.43728638 0 0 0
195.34977722 200.03767395 393.81137085 0 0 0
177.78439331 189.54081726 354.35488892 0 0 0
181.60745239 214.96408081 391.32290649 0 0 0
212.83337402 205.32949829 355.98684692 0 0 0
186.86650085 226.40509033 335.97601318 0 0 0
195.57978821 243.64701843 372.26052856 0 0 0
204.04821777 241.46884155 374.68777466 0 0 0
230.58285522 197.48899841 382.61407471 0 0 0
173.46006775 223.76095581 378.94378662 0 0 0
215.41101074 186.10705566 376.82949829 0 0 0
179.95852661 237.45724487 365.06344604 0 0 0
174.02589417 223.76530457 355.95962524 0 0 0
206.85722351 191.96401978 391.38989258 0 0 0
221.86567688 205.79754639 363.58966064 0 0 0
223.74194336 213.05938721 364.48013306 0 0 0
185.22729492 184.95155334 355.33489990 0 0 0
210.74836731 186.51751709 379.65206909 0 0 0
218.69920349 218.40008545 380.36032104 0 0 0
217.92485046 219.88523865 379.38442993 0 0 0
205.57723999 184.35859680 371.75253296 0 0 0
180.86302185 237.40307617 361.82577515 0 0 0
203.57595825 237.22698975 392.02563477 0 0 0
176.16969299 222.29620361 387.31915283 0 0 0
180.24176025 240.49853516 376.51504517 0 0 0
172.28541565 221.70436096 360.65518188 0 0 0
227.85258484 209.57916260 377.70108032 0 0 0
170.44477844 207.07319641 365.54568481 0 0 0
190.75956726 241.84008789 384.90963745 0 0 0
195.72343445 242.51298523 357.25537109 0 0 0
201.86279297 188.89833069 376.55725098 0 0 0
177.81265259 236.42376709 370.93038940 0 0 0
225.92208862 208.26844788 366.62158203 0 0 0
216.66033936 226.29156494 360.30664063 0 0 0
171.45343018 205.17056274 354.36734009 0 0 0
210.72503662 225.87965393 395.18725586 0 0 0
213.08078003 230.38629150 374.21899414 0 0 0
189.51672363 190.83671570 384.83752441 0 0 0
189.98530579 239.62535095 349.30438232 0 0 0
229.47314453 204.45223999 388.27899170 0 0 0
182.17738342 205.32708740 334.27368164 0 0 0
186.66539001 224.12414551 334.44485474 0 0 0
176.35377502 225.09220886 350.37890625 0 0 0
187.17356873 243.56283569 375.10302734 0 0 0
194.04302979 182.91258240 371.13571167 0 0 0
220.60681152 198.71838379 364.48138428 0 0 0
183.53944397 180.12625122 365.67105103 0 0 0
201.48858643 207.09332275 343.52230835 0 0 0
171.87374878 211.22454834 376.94656372 0 0 0
178.87158203 236.41972351 384.68566895 0 0 0
217.95297241 214.97689819 389.10748291 0 0 0
201.58636475 229.14782715 336.09796143 0 0 0
212.31886292 205.65707397 355.25137329 0 0 0
215.84690857 222.62265015 382.70062256 0 0 0
195.16291809 188.53614807 375.28283691 0 0 0
191.48684692 226.29322815 331.09631348 0 0 0
178.57928467 225.26770020 344.95043945 0 0 0
188.23394775 242.82766724 358.66601563 0 0 0
184.40321350 229.14532471 341.14703369 0 0 0
177.83515930 228.33357239 390.12249756 0 0 0
172.88769531 196.72149658 361.96890259 0 0 0
182.35122681 242.92828369 377.61947632 0 0 0
193.46109009 174.10493469 369.97390747 0 0 0
175.00512695 197.02992249 346.75469971 0 0 0
176.05848694 227.69697571 355.42193604 0 0 0
195.07751465 231.58047485 333.41241455 0 0 0
170.60589600 203.27914429 359.75186157 0 0 0
212.74591064 196.58549500 358.57067871 0 0 0
191.98655701 197.08897400 338.84820557 0 0 0
228.14012146 209.77799988 370.05432129 0 0 0
180.79554749 183.07604980 372.61557007 0 0 0
171.43946838 199.65232849 361.47262573 0 0 0
207.98661804 198.90823364 352.95977783 0 0 0
182.19480896 190.95741272 383.12017822 0 0 0
210.31607056 187.63893127 383.43203735 0 0 0
171.75508118 207.41586304 375.52886963 0 0 0
220.61595154 195.94427490 365.73815918 0 0 0
172.11929321 213.85542297 377.49938965 0 0 0
173.06216431 214.70010376 349.43038940 0 0 0
182.22444153 187.17668152 380.43563843 0 0 0
173.71325684 218.03622437 349.08212280 0 0 0
173.51289368 227.96903992 369.64285278 0 0 0
185.84484863 188.37022400 383.81304932 0 0 0
193.36926270 217.67314148 328.16555786 0 0 0
183.80723572 198.55348206 338.36038208 0 0 0
199.58480835 192.40637207 388.59432983 0 0 0
199.68145752 211.22492981 397.81607056 0 0 0
230.49516296 198.49177551 386.47937012 0 0 0
188.47248840 195.28515625 389.47094727 0 0 0
219.61149597 202.89817810 362.36380005 0 0 0
212.09698486 216.45272827 353.08697510 0 0 0
206.51977539 209.20396423 398.91079712 0 0 0
183.02030945 243.50756836 376.20053101 0 0 0
187.66633606 233.01177979 342.21389771 0 0 0
207.81208801 187.61186218 377.25161743 0 0 0
185.65382385 216.31144714 329.63342285 0 0 0
172.56857300 225.14947510 372.29736328 0 0 0
198.73724365 243.69212341 377.88500977 0 0 0
204.84187317 240.15760803 376.91445923 0 0 0
216.22354126 191.24980164 364.75177002 0 0 0
214.75233459 224.12429810 353.33499146 0 0 0
180.29902649 195.20884705 382.99569702 0 0 0
212.81126404 212.54344177 354.68807983 0 0 0
181.78596497 186.72200012 379.32211304 0 0 0
222.01171875 214.47319031 377.88784790 0 0 0
200.50065613 205.38969421 396.26193237 0 0 0
188.55989075 194.57051086 389.14611816 0 0 0
220.11506653 188.82817078 376.82522583 0 0 0
220.89216614 214.60527039 361.21847534 0 0 0
219.58493042 191.58232117 390.99539185 0 0 0
224.32765198 207.97587585 387.64730835 0 0 0
221.66131592 217.14199829 368.05328369 0 0 0
221.89073181 210.44252014 387.47760010 0 0 0
170.51055908 207.06391907 360.83578491 0 0 0
195.32292175 242.89591980 360.34674072 0 0 0
203.59664917 186.94337463 360.23211670 0 0 0
175.42025757 231.09700012 365.42416382 0 0 0
199.03231812 235.92825317 341.33813477 0 0 0
187.29371643 239.99792480 353.62771606 0 0 0
183.11404419 193.51683044 385.27703857 0 0 0
205.93128967 229.43305969 343.37353516 0 0 0
208.46603394 222.12719727 347.78918457 0 0 0
200.65272522 183.14025879 370.73248291 0 0 0
178.38645935 224.42036438 390.66934204 0 0 0
204.84303284 228.99472046 341.15280151 0 0 0
170.49084473 212.60098267 361.93972778 0 0 0
209.00834656 234.73887634 379.54351807 0 0 0
226.45695496 195.20613098 376.70904541 0 0 0
212.46073914 221.32406616 396.62051392 0 0 0
171.15284729 207.38064575 374.17504883 0 0 0
210.21060181 235.60778809 368.87142944 0 0 0
220.05564880 194.29602051 391.78469849 0 0 0
188.35098267 195.14944458 340.21954346 0 0 0
203.93537903 217.89326477 344.11480713 0 0 0
199.27941895 192.15747070 387.31555176 0 0 0
209.59536743 211.37692261 351.24792480 0 0 0
215.19396973 228.07366943 369.90533447 0 0 0
211.71896362 234.19557190 362.77767944 0 0 0
186.66358948 230.71792603 340.22824097 0 0 0
195.36994934 175.87875366 366.86856079 0 0 0
210.37876892 235.59489441 365.47753906 0 0 0
181.35792542 181.68640137 367.48220825 0 0 0
181.02020264 194.84162903 341.99536133 0 0 0
208.48522949 232.51124573 389.24356079 0 0 0
186.28804016 179.92460632 363.06359863 0 0 0
215.96226501 186.48779297 381.00967407 0 0 0
204.98571777 202.13874817 348.11694336 0 0 0
209.74087524 186.12278748 376.32690430 0 0 0
203.57914734 233.98092651 344.40338135 0 0 0
174.43054199 200.37837219 375.76525879 0 0 0
216.42649841 225.73533630 369.44146729 0 0 0
187.98898315 214.46690369 394.27291870 0 0 0
196.70596313 231.93322754 333.73898315 0 0 0
176.05789185 224.14221191 387.29656982 0 0 0
216.03601074 225.20802307 374.82513428 0 0 0
188.13572693 178.48182678 371.51193237 0 0 0
213.71849060 223.53021240 389.60601807 0 0 0
176.35726929 222.87608337 347.23791504 0 0 0
170.45530701 212.54798889 365.82354736 0 0 0
175.84487915 227.93441772 356.61883545 0 0 0
216.71571350 226.10969543 358.42367554 0 0 0
219.26545715 218.11047363 378.47796631 0 0 0
184.59703064 189.12664795 384.83361816 0 0 0
192.26596069 243.67823792 372.95074463 0 0 0
206.78512573 194.41667175 354.15917969 0 0 0
202.43287659 214.32946777 398.65063477 0 0 0
182.22871399 242.23124695 372.39257813 0 0 0
200.54112244 184.71096802 360.92556763 0 0 0
181.41175842 185.26437378 358.35791016 0 0 0
213.60322571 184.41581726 374.85571289 0 0 0
198.87602234 180.32542419 365.60494995 0 0 0
202.89636230 240.46347046 385.60345459 0 0 0
187.00357056 188.89318848 383.01635742 0 0 0
200.65431213 243.30395508 373.15542603 0 0 0
172.93125916 222.84436035 359.49261475 0 0 0
199.22737122 238.58769226 348.69390869 0 0 0
233.02542114 205.59855652 382.76956177 0 0 0
225.78182983 211.76043701 367.31604004 0 0 0
179.09721375 210.41270447 336.51821899 0 0 0
172.39064026 221.57164001 359.96423340 0 0 0
185.36935425 185.70036316 353.53750610 0 0 0
186.77178955 229.43634033 396.88549805 0 0 0
192.31950378 243.73423767 369.77615356 0 0 0
213.85676575 227.28488159 378.99862671 0 0 0
209.75318909 228.16935730 348.34625244 0 0 0
219.90556335 202.44905090 362.70275879 0 0 0
215.90409851 202.65922546 397.24542236 0 0 0
185.73974609 237.28919983 392.82669067 0 0 0
172.29115295 219.53659058 357.37127686 0 0 0
184.59240723 206.36354065 390.48382568 0 0 0
204.06861877 232.72088623 343.38494873 0 0 0
213.40151978 186.55635071 370.26837158 0 0 0
189.97843933 185.06358337 354.55862427 0 0 0
203.32633972 227.63600159 337.84786987 0 0 0
210.86932373 187.61666870 384.81515503 0 0 0
222.52232361 203.26376343 364.31155396 0 0 0
182.75028992 233.33125305 393.68167114 0 0 0
173.21907043 203.22471619 374.01052856 0 0 0
183.42927551 212.82702637 330.27511597 0 0 0
197.32870483 204.30375671 337.35098267 0 0 0
193.86621094 194.48603821 390.78833008 0 0 0
202.13110352 241.99929810 382.82424927 0 0 0
180.40037537 231.82972717 391.66961670 0 0 0
212.89410400 188.75518799 388.28509521 0 0 0
174.39961243 226.40435791 359.33267212 0 0 0
208.76196289 200.94609070 397.05798340 0 0 0
179.78126526 222.43289185 391.77166748 0 0 0
196.46112061 182.23977661 359.76480103 0 0 0
207.02713013 211.46940613 348.52401733 0 0 0
174.41134644 204.06636047 377.21109009 0 0 0
174.50941467 222.19474792 382.23764038 0 0 0
193.20138550 204.70756531 332.66183472 0 0 0
178.70796204 188.18260193 355.80780029 0 0 0
181.00462341 191.00706482 381.91867065 0 0 0
172.13087463 201.67448425 353.98159790 0 0 0
201.97828674 220.02970886 337.99301147 0 0 0
213.28244019 222.87103271 352.53811646 0 0 0
205.04321289 201.86318970 348.24789429 0 0 0
208.41679382 231.10095215 392.87078857 0 0 0
205.98361206 222.98579407 344.06814575 0 0 0
184.12072754 187.62925720 349.90924072 0 0 0
200.37550354 241.80413818 387.60015869 0 0 0
204.53961182 183.21238708 368.23504639 0 0 0
177.93728638 194.26887512 346.18710327 0 0 0
208.41201782 236.91789246 374.35617065 0 0 0
180.39125061 224.30487061 392.71105957 0 0 0
182.23040771 187.21923828 352.39453125 0 0 0
170.73960876 207.40910339 372.25863647 0 0 0
215.74571228 212.43298340 357.28427124 0 0 0
170.80435181 216.78955078 361.32858276 0 0 0
178.72343445 204.30390930 336.98944092 0 0 0
195.79116821 199.08688354 338.48913574 0 0 0
187.01199341 241.35179138 357.46121216 0 0 0
226.02966309 196.61140442 371.18841553 0 0 0
178.86996460 237.55854797 381.70080566 0 0 0
181.17459106 185.63009644 357.74536133 0 0 0
208.56999207 218.68516541 398.67248535 0 0 0
216.62934875 215.05960083 392.08489990 0 0 0
204.60345459 238.66517639 384.96453857 0 0 0
177.35932922 192.92822266 349.27932739 0 0 0
193.09619141 237.00566101 395.37518311 0 0 0
174.05702209 225.03617859 380.22589111 0 0 0
178.63571167 217.93345642 339.97772217 0 0 0
191.43995667 181.43600464 359.61865234 0 0 0
213.30932617 226.28627014 384.43087769 0 0 0
211.32202148 231.21122742 380.25692749 0 0 0
214.64666748 216.50238037 396.03552246 0 0 0
222.52894592 215.44648743 369.37399292 0 0 0
176.30746460 197.33511353 344.44219971 0 0 0
177.52381897 199.75917053 381.14639282 0 0 0
186.47659302 190.45164490 386.84469604 0 0 0
175.02235413 194.78228760 351.77770996 0 0 0
213.61991882 184.48503113 374.56835938 0 0 0
217.83944702 187.08558655 381.67776489 0 0 0
196.60119629 197.36128235 393.60400391 0 0 0
206.35719299 216.69732666 401.00045776 0 0 0
223.51504517 192.07637024 377.49319458 0 0 0
190.85443115 233.77258301 338.99078369 0 0 0
194.08020020 241.11289978 348.25903320 0 0 0
206.22038269 183.79490662 368.15393066 0 0 0
182.66294861 243.26602173 376.18719482 0 0 0
171.18074036 219.85673523 368.17984009 0 0 0
219.23236084 216.08518982 359.26016235 0 0 0
219.18304443 221.83531189 363.03308105 0 0 0
213.89422607 202.45089722 398.86782837 0 0 0
192.52891541 225.47296143 329.39639282 0 0 0
211.04574585 184.38314819 374.92596436 0 0 0
191.94194031 241.84124756 383.85784912 0 0 0
180.94938660 214.68392944 335.61236572 0 0 0
216.30493164 221.46429443 355.34597778 0 0 0
199.09255981 240.33409119 355.00262451 0 0 0
180.13862610 189.46887207 350.06460571 0 0 0
181.12611389 210.11836243 389.32736206 0 0 0
179.31472778 233.75691223 388.82058716 0 0 0
222.47314453 208.63227844 389.18511963 0 0 0
230.55096436 199.92694092 373.26208496 0 0 0
209.44691467 207.85751343 351.36944580 0 0 0
216.81652832 225.92871094 358.38870239 0 0 0
193.53063965 219.44207764 398.27911377 0 0 0
207.72209167 184.40194702 368.83480835 0 0 0
174.31985474 214.36427307 383.44085693 0 0 0
181.66950989 230.97109985 393.66000366 0 0 0
172.02046204 218.23623657 377.15637207 0 0 0
179.83122253 237.30690002 385.58850098 0 0 0
195.77120972 219.89598083 329.36669922 0 0 0
206.98698425 197.78739929 352.22348022 0 0 0
225.68693542 200.97354126 390.46252441 0 0 0
183.82939148 219.17411804 334.15539551 0 0 0
196.20878601 239.73114014 346.12026978 0 0 0
200.30911255 226.75306702 332.97399902 0 0 0
215.11289978 229.10177612 361.13265991 0 0 0
174.09130859 195.40412903 354.47552490 0 0 0
196.59333801 210.87928772 332.08959961 0 0 0
210.30107117 203.05838013 398.89520264 0 0 0
196.92184448 213.89140320 397.62701416 0 0 0
176.64791870 194.27125549 377.02755737 0 0 0
207.05712891 192.36636353 391.78823853 0 0 0
217.29647827 188.53198242 372.14160156 0 0 0
214.60334778 223.02558899 353.52673340 0 0 0
172.31585693 210.86091614 349.46032715 0 0 0
174.20608521 195.48410034 371.55944824 0 0 0
216.61343384 187.38696289 386.42135620 0 0 0
177.40858459 235.42495728 369.58486938 0 0 0
172.58396912 224.77296448 365.73193359 0 0 0
184.38568115 178.27969360 369.06884766 0 0 0
219.08821106 221.92004395 363.59060669 0 0 0
191.80381775 243.69902039 368.30618286 0 0 0
189.07128906 185.21247864 354.12194824 0 0 0
184.18806458 188.14146423 348.81600952 0 0 0
171.32972717 219.35331726 362.35876465 0 0 0
204.98437500 209.89286804 346.62103271 0 0 0
190.54290771 219.34715271 396.39996338 0 0 0
190.83967590 243.51753235 364.09786987 0 0 0
213.62294006 210.62019348 355.76147461 0 0 0
180.64179993 233.06166077 352.77774048 0 0 0
225.58956909 209.87973022 365.98620605 0 0 0
209.87503052 198.00068665 355.57382202 0 0 0
202.37454224 237.04489136 351.15878296 0 0 0
220.57302856 200.52494812 393.28500366 0 0 0
201.77909851 210.38523865 342.72680664 0 0 0
213.24565125 230.21296692 352.55990601 0 0 0
174.29165649 226.06419373 359.09814453 0 0 0
173.47938538 197.62728882 371.62869263 0 0 0
203.77734375 195.29145813 393.94607544 0 0 0
192.85044861 188.91293335 376.03942871 0 0 0
176.53913879 193.21664429 350.94506836 0 0 0
203.95262146 188.46545410 357.92486572 0 0 0
189.72637939 233.60340881 340.00820923 0 0 0
187.24855042 234.56111145 344.48477173 0 0 0
201.75776672 240.60980225 388.85119629 0 0 0
205.00149536 226.00250244 398.91497803 0 0 0
192.55880737 212.66902161 396.13299561 0 0 0
234.19412231 203.41156006 380.43804932 0 0 0
197.29425049 215.25715637 398.79586792 0 0 0
195.55731201 223.41963196 398.85214233 0 0 0
212.50868225 233.15689087 360.59930420 0 0 0
221.84298706 213.59603882 381.41976929 0 0 0
172.61801147 202.92185974 372.48419189 0 0 0
186.35510254 234.52493286 396.04928589 0 0 0
208.97662354 230.95442200 391.19360352 0 0 0
177.07655334 226.56716919 389.09091187 0 0 0
211.69584656 227.33052063 388.65686035 0 0 0
200.40019226 227.15791321 333.26776123 0 0 0
207.39338684 239.29129028 363.19079590 0 0 0
207.79614258 234.85055542 385.10964966 0 0 0
203.28758240 194.93797302 348.89556885 0 0 0
230.16136169 199.94480896 388.90545654 0 0 0
178.10444641 190.10258484 352.18951416 0 0 0
193.12249756 232.96171570 336.22421265 0 0 0
173.21090698 211.02738953 346.98495483 0 0 0
209.59924316 200.37471008 354.19766235 0 0 0
193.42593384 237.58732605 394.71871948 0 0 0
172.87803650 199.40983582 371.49340820 0 0 0
175.20741272 227.65490723 382.18426514 0 0 0
207.14288330 196.66522217 352.98797607 0 0 0
199.01803589 186.33604431 356.12042236 0 0 0
170.96173096 204.40559387 356.62792969 0 0 0
177.32214355 193.52479553 377.64096069 0 0 0
200.04302979 215.05773926 337.23138428 0 0 0
224.17819214 202.92935181 392.90185547 0 0 0
202.93914795 212.15632629 344.11813354 0 0 0
213.39247131 219.86328125 353.41018677 0 0 0
210.39030457 201.15173340 397.55114746 0 0 0
196.95367432 201.44042969 338.27783203 0 0 0
190.71498108 218.79974365 326.60064697 0 0 0
177.63630676 200.99771118 339.26828003 0 0 0
201.59965515 234.30491638 340.99386597 0 0 0
199.55435181 217.73664856 334.88070679 0 0 0
176.85961914 190.37556458 355.36248779 0 0 0
174.12290955 220.61999512 350.74102783 0 0 0
207.88339233 184.50515747 368.81112671 0 0 0
194.73359680 222.51643372 328.67465210 0 0 0
198.27653503 201.06541443 339.53753662 0 0 0
233.28910828 202.51568604 375.94885254 0 0 0
171.54483032 221.00422668 364.12335205 0 0 0
191.15316772 177.51370239 371.44030762 0 0 0
199.16345215 236.12107849 341.68811035 0 0 0
208.26533508 233.54399109 387.11663818 0 0 0
211.99346924 207.79585266 354.51809692 0 0 0
209.09947205 236.89967346 360.83001709 0 0 0
199.36631775 182.77575684 362.77777100 0 0 0
179.00527954 230.74551392 390.74520874 0 0 0
184.93370056 182.58497620 359.95492554 0 0 0
231.03903198 207.64469910 371.46649170 0 0 0
203.63751221 238.08013916 390.72253418 0 0 0
197.13310242 190.82325745 380.56427002 0 0 0
198.98774719 195.38581848 393.57113647 0 0 0
173.74557495 224.33186340 358.20199585 0 0 0
206.45353699 231.63211060 395.56481934 0 0 0
190.75857544 191.58801270 343.91204834 0 0 0
191.00471497 243.17799377 379.22122192 0 0 0
190.95556641 193.64756775 390.15573120 0 0 0
177.16958618 188.11248779 361.39611816 0 0 0
178.68075562 186.21647644 361.69448853 0 0 0
181.75460815 238.36547852 386.03775024 0 0 0
184.16906738 220.46827698 394.88577271 0 0 0
196.62478638 185.02090454 355.98284912 0 0 0
171.08631897 213.99711609 356.14132690 0 0 0
192.16322327 243.77227783 358.57073975 0 0 0
213.39736938 209.25250244 355.80364990 0 0 0
188.82095337 195.58789063 389.90960693 0 0 0
223.10066223 194.49566650 370.00006104 0 0 0
210.86659241 230.18334961 385.75549316 0 0 0
194.59867859 242.06391907 383.90054321 0 0 0
201.91563416 201.45465088 396.40933228 0 0 0
205.29226685 232.56533813 345.99057007 0 0 0
180.67611694 240.74200439 379.62167358 0 0 0
198.95443726 234.63378906 396.14474487 0 0 0
182.69047546 228.27861023 342.70535278 0 0 0
191.35446167 243.59230042 355.93099976 0 0 0
177.38903809 228.48353577 352.42745972 0 0 0
190.18713379 202.76588440 334.00555420 0 0 0
193.50408936 199.71707153 393.25103760 0 0 0
211.38531494 184.09684753 373.75814819 0 0 0
209.59828186 188.51017761 386.06509399 0 0 0
219.03906250 212.47328186 390.36874390 0 0 0
220.06858826 194.19572449 366.39401245 0 0 0
187.92924500 224.41535950 396.86904907 0 0 0
191.36680603 235.71842957 341.39901733 0 0 0
209.53811646 226.08236694 397.81054688 0 0 0
179.49154663 234.28182983 358.66372681 0 0 0
191.61929321 185.68449402 353.16052246 0 0 0
202.92530823 233.99394226 395.60183716 0 0 0
207.11915588 239.19641113 369.33001709 0 0 0
172.51251221 197.35083008 360.34078979 0 0 0
200.69522095 199.31158447 343.18692017 0 0 0
172.21945190 213.74719238 377.79632568 0 0 0
175.12532043 191.75086975 362.65786743 0 0 0
198.20611572 242.06814575 359.80175781 0 0 0
200.17916870 212.98466492 398.93978882 0 0 0
179.03717041 192.41233826 346.63308716 0 0 0
191.66209412 207.57681274 394.16656494 0 0 0
199.44081116 206.59669495 340.43243408 0 0 0
222.86845398 206.15606689 392.69351196 0 0 0
211.84092712 185.46119690 379.40130615 0 0 0
184.44287109 219.90205383 394.76113892 0 0 0
183.02825928 237.36889648 356.30087280 0 0 0
192.54032898 227.30831909 330.98495483 0 0 0
178.93664551 201.94322205 384.34469604 0 0 0
190.83451843 196.07186890 339.28909302 0 0 0
199.83618164 227.66999817 332.91293335 0 0 0
181.70350647 240.07293701 367.86770630 0 0 0
178.35971069 237.23193359 371.03433228 0 0 0
204.04537964 239.71859741 382.78692627 0 0 0
172.90335083 219.55958557 379.21572876 0 0 0
211.08032227 234.94702148 362.53945923 0 0 0
221.60112000 203.86695862 394.17297363 0 0 0
182.15319824 181.08999634 366.34020996 0 0 0
189.81181335 199.85200500 337.23287964 0 0 0
228.56547546 196.32435608 379.81011963 0 0 0
209.65568542 205.63882446 398.86434937 0 0 0
171.62847900 199.11541748 360.99288940 0 0 0
175.07386780 231.90933228 373.27322388 0 0 0
208.42103577 198.68031311 353.64221191 0 0 0
185.14883423 224.53945923 396.18780518 0 0 0
189.86535645 223.88916016 330.61270142 0 0 0
183.60455322 243.12271118 371.16979980 0 0 0
218.78298950 193.06236267 365.89114380 0 0 0
180.07212830 220.47261047 391.67453003 0 0 0
171.61720276 216.71331787 356.52374268 0 0 0
184.97845459 223.06958008 335.48577881 0 0 0
197.52473450 177.11518860 366.95611572 0 0 0
196.89428711 190.38165283 379.07040405 0 0 0
185.37733459 212.49256897 326.86270142 0 0 0
175.66706848 191.04786682 370.06442261 0 0 0
218.66928101 202.13356018 395.73162842 0 0 0
196.87489319 193.72969055 343.22467041 0 0 0
210.01763916 188.33020020 385.84167480 0 0 0
205.76075745 224.62751770 342.86395264 0 0 0
174.07281494 221.24363708 351.88098145 0 0 0
224.94334412 210.96830750 380.21313477 0 0 0
196.37762451 176.78874207 365.91397095 0 0 0
186.73854065 204.90699768 331.86801147 0 0 0
200.32713318 191.71366882 386.69430542 0 0 0
186.92016602 238.29928589 350.49337769 0 0 0
178.30096436 227.28250122 348.33578491 0 0 0
195.68354797 225.75685120 398.72650146 0 0 0
215.15753174 214.16397095 356.34902954 0 0 0
171.42491150 205.68649292 354.35217285 0 0 0
184.26641846 203.20709229 334.54498291 0 0 0
218.17387390 187.42758179 385.76156616 0 0 0
205.35189819 239.18157959 378.78900146 0 0 0
177.42262268 235.71095276 378.09375000 0 0 0
209.63705444 227.94305420 394.28732300 0 0 0
181.76463318 202.51351929 387.10290527 0 0 0
211.28930664 186.34849548 380.85824585 0 0 0
186.47508240 230.95278931 340.70108032 0 0 0
199.37776184 230.34242249 334.16415405 0 0 0
184.55426025 180.47825623 375.96862793 0 0 0
170.85494995 204.14913940 368.91531372 0 0 0
212.49656677 209.05343628 354.90966797 0 0 0
170.89790344 203.01577759 367.45620728 0 0 0
200.38256836 243.54356384 380.66180420 0 0 0
171.68247986 200.64909363 366.98300171 0 0 0
201.10881042 242.19633484 385.58477783 0 0 0
170.77600098 209.18479919 372.95721436 0 0 0
218.27601624 217.47782898 384.11303711 0 0 0
194.35716248 201.81767273 393.82992554 0 0 0
172.92852783 221.46588135 377.80029297 0 0 0
174.35665894 200.32038879 346.56207275 0 0 0
202.99389648 240.73524475 358.87283325 0 0 0
222.60029602 211.64247131 363.14361572 0 0 0
174.07591248 195.15921021 356.73846436 0 0 0
173.42323303 226.37078857 364.23059082 0 0 0
191.95890808 216.10292053 326.58425903 0 0 0
187.63929749 189.93368530 385.30603027 0 0 0
216.51002502 220.84153748 383.73110962 0 0 0
181.26118469 198.48310852 385.51889038 0 0 0
203.69306946 207.53677368 398.20504761 0 0 0
211.59465027 234.10263062 366.53283691 0 0 0
196.17881775 225.71978760 329.87619019 0 0 0
180.01635742 232.99058533 354.09619141 0 0 0
201.93556213 208.42880249 343.71151733 0 0 0
196.18598938 178.00654602 369.00500488 0 0 0
226.48281860 196.09739685 372.88900757 0 0 0
205.40686035 232.80622864 395.41806030 0 0 0
183.56718445 204.56533813 333.80325317 0 0 0
214.26713562 190.26750183 391.19613647 0 0 0
231.73295593 199.03013611 386.40545654 0 0 0
213.35618591 183.74884033 378.62768555 0 0 0
216.11303711 186.57292175 377.18817139 0 0 0
190.32954407 243.68096924 372.71563721 0 0 0
186.76748657 187.97048950 380.51852417 0 0 0
211.81512451 228.83938599 384.39245605 0 0 0
192.24543762 189.04100037 376.35433960 0 0 0
217.42839050 196.46566772 362.82247925 0 0 0
200.71043396 241.51603699 388.12182617 0 0 0
189.42218018 204.86360168 392.50418091 0 0 0
184.79667664 182.89950562 377.08953857 0 0 0
219.88002014 219.99440002 367.23822021 0 0 0
199.16700745 223.14312744 331.79199219 0 0 0
207.97451782 201.26730347 351.83700562 0 0 0
213.10984802 203.85568237 356.70565796 0 0 0
213.25572205 184.95480347 372.63400269 0 0 0
216.49635315 191.67222595 364.54122925 0 0 0
206.60997009 194.32356262 354.05480957 0 0 0
219.32608032 220.44683838 359.02398682 0 0 0
180.10954285 216.29898071 337.67681885 0 0 0
206.27464294 189.88206482 385.38119507 0 0 0
181.56724548 207.37101746 332.76629639 0 0 0
207.91680908 209.01844788 349.63415527 0 0 0
191.64132690 181.04370117 371.08694458 0 0 0
179.55197144 236.09210205 362.02371216 0 0 0
197.68869019 201.89639282 338.88327026 0 0 0
179.43028259 187.30786133 356.63015747 0 0 0
181.57435608 238.80366516 385.10299683 0 0 0
175.17706299 230.05944824 379.69174194 0 0 0
217.30606079 191.22952271 392.36801147 0 0 0
222.83328247 191.55947876 375.91537476 0 0 0
176.84413147 230.41334534 385.69354248 0 0 0
197.42149353 208.94265747 334.42416382 0 0 0
203.47296143 184.82507324 371.52667236 0 0 0
186.48895264 228.79640198 338.30575562 0 0 0
210.27503967 233.80342102 351.93341064 0 0 0
204.78973389 208.00077820 398.86431885 0 0 0
186.98535156 185.06019592 374.96005249 0 0 0
196.97247314 234.79273987 337.30813599 0 0 0
217.10873413 218.89060974 385.09924316 0 0 0
218.29882813 191.45127869 391.95730591 0 0 0
204.40783691 233.43074036 345.53271484 0 0 0
197.88583374 192.07633972 345.86703491 0 0 0
212.17733765 186.93484497 384.77465820 0 0 0
228.41906738 197.94549561 372.81231689 0 0 0
182.41751099 183.54173279 361.02084351 0 0 0
182.66007996 196.64721680 385.90591431 0 0 0
200.34899902 241.25627136 359.53521729 0 0 0
178.80499268 214.21873474 338.59542847 0 0 0
207.42335510 237.56329346 375.87881470 0 0 0
176.33241272 233.31333923 378.40438843 0 0 0
191.06507874 227.20045471 332.07806396 0 0 0
170.77467346 202.79568481 358.84390259 0 0 0
205.19694519 192.99346924 353.74221802 0 0 0
170.51492310 213.95979309 361.67626953 0 0 0
212.95816040 192.40014648 360.74591064 0 0 0
211.38700867 216.05392456 352.57723999 0 0 0
210.07324219 216.92446899 351.09167480 0 0 0
209.18095398 236.81541443 359.79650879 0 0 0
206.85760498 233.79731750 391.53070068 0 0 0
196.05632019 228.82875061 331.21145630 0 0 0
180.71307373 189.26774597 349.76708984 0 0 0
209.89614868 205.77433777 398.82553101 0 0 0
185.29856873 182.76554871 375.86291504 0 0 0
202.43624878 189.83306885 354.26818848 0 0 0
209.08740234 235.74043274 375.82745361 0 0 0
175.95492554 190.68041992 370.85446167 0 0 0
170.68275452 215.01786804 359.87948608 0 0 0
217.72703552 224.47206116 359.19659424 0 0 0
208.17497253 235.27516174 381.90344238 0 0 0
215.04898071 229.05900574 365.43646240 0 0 0
213.51823425 230.68780518 353.81542969 0 0 0
225.89494324 209.43621826 383.16220093 0 0 0
172.45498657 218.67611694 355.15618896 0 0 0
209.33779907 188.40008545 363.07278442 0 0 0
177.03332520 226.41479492 389.03506470 0 0 0
172.28674316 223.89927673 365.56307983 0 0 0
214.12942505 214.12739563 398.47430420 0 0 0
194.99916077 225.84956360 398.73913574 0 0 0
201.60858154 235.97567749 344.10678101 0 0 0
204.74986267 215.63168335 399.44290161 0 0 0
194.25720215 227.07032776 398.68627930 0 0 0
200.66018677 204.40364075 343.01547241 0 0 0
184.05729675 214.79481506 330.91058350 0 0 0
202.05349731 190.76745605 383.51043701 0 0 0
206.52706909 216.55429077 347.68432617 0 0 0
217.01306152 190.55635071 366.77001953 0 0 0
179.50376892 218.52812195 390.63540649 0 0 0
188.17715454 180.01989746 361.98474121 0 0 0
180.26029968 222.14436340 340.44131470 0 0 0
212.05758667 223.01559448 395.77017212 0 0 0
177.06658936 189.18861389 372.62106323 0 0 0
171.80101013 206.42828369 374.56445313 0 0 0
205.36639404 222.71395874 343.05029297 0 0 0
183.62396240 211.34495544 391.67395020 0 0 0
199.24340820 243.71151733 376.92678833 0 0 0
223.48268127 212.82209778 363.93881226 0 0 0
200.04617310 242.41516113 364.79803467 0 0 0
229.52098083 197.41398621 375.66967773 0 0 0
196.59259033 230.32839966 398.97967529 0 0 0
194.21018982 232.19834900 334.64672852 0 0 0
210.18443298 208.86215210 398.70092773 0 0 0
220.90956116 189.73332214 375.58871460 0 0 0
201.24530029 201.75970459 396.39810181 0 0 0
198.15121460 226.18695068 398.73956299 0 0 0
176.86296082 231.23435974 359.70635986 0 0 0
194.82733154 243.19528198 363.17126465 0 0 0
196.75033569 211.46626282 332.26296997 0 0 0
181.00395203 215.37394714 335.89208984 0 0 0
195.48524475 184.34696960 356.37939453 0 0 0
211.28416443 190.04118347 389.76296997 0 0 0
201.69212341 216.05972290 398.56344604 0 0 0
170.90231323 202.83702087 357.98843384 0 0 0
183.53941345 243.86361694 375.46585083 0 0 0
176.50561523 234.69969177 373.64099121 0 0 0
195.42454529 240.32369995 346.93737793 0 0 0
217.59757996 224.19175720 366.57977295 0 0 0
205.81127930 189.62057495 381.77362061 0 0 0
224.25296021 204.38789368 393.14410400 0 0 0
178.18447876 214.34378052 339.46585083 0 0 0
203.85877991 216.92820740 399.49810791 0 0 0
182.93760681 220.54580688 393.92016602 0 0 0
182.71878052 220.20104980 336.14947510 0 0 0
220.69371033 216.92601013 375.24157715 0 0 0
196.11013794 207.90495300 332.70172119 0 0 0
175.17089844 192.89157104 371.30322266 0 0 0
217.32029724 186.87191772 381.84744263 0 0 0
192.16992188 196.91856384 391.30065918 0 0 0
209.34159851 215.64019775 350.79632568 0 0 0
177.90618896 228.07293701 390.26663208 0 0 0
185.89735413 186.77590942 350.61184692 0 0 0
216.35156250 226.62477112 357.54629517 0 0 0
203.86569214 225.66909790 398.86563110 0 0 0
183.84921265 213.84719849 330.47988892 0 0 0
181.12316895 241.35942078 379.51397705 0 0 0
179.98875427 227.11019897 345.07443237 0 0 0
206.42677307 233.87590027 349.67391968 0 0 0
218.10287476 220.96165466 374.84954834 0 0 0
216.82722473 222.63728333 377.77163696 0 0 0
179.67419434 200.20202637 384.60647583 0 0 0
218.79550171 220.56777954 371.95663452 0 0 0
173.37985229 225.64088440 362.70700073 0 0 0
199.44161987 191.77787781 385.90618896 0 0 0
223.88461304 192.86161804 375.15383911 0 0 0
180.94137573 195.37127686 383.80960083 0 0 0
191.45672607 186.44535828 351.52166748 0 0 0
196.86978149 213.73583984 397.44546509 0 0 0
183.89694214 242.26774597 367.67868042 0 0 0
221.20486450 212.45715332 361.78256226 0 0 0
211.64964294 195.95324707 357.79260254 0 0 0
215.36860657 210.12156677 398.91143799 0 0 0
197.58467102 217.78063965 398.97613525 0 0 0
217.88720703 223.91610718 365.24328613 0 0 0
183.77146912 192.85072327 342.88250732 0 0 0
196.71487427 191.40295410 382.69830322 0 0 0
193.86689758 187.44488525 350.55230713 0 0 0
194.47793579 184.17189026 371.26513672 0 0 0
192.13264465 243.72596741 367.48953247 0 0 0
192.31030273 214.26867676 396.28381348 0 0 0
217.52883911 221.36228943 377.14480591 0 0 0
209.09068298 236.87403870 367.32781982 0 0 0
170.45912170 211.72856140 364.62588501 0 0 0
214.45530701 185.60285950 374.00698853 0 0 0
172.50413513 220.74873352 377.00942993 0 0 0
188.21778870 188.48632813 378.79421997 0 0 0
185.14488220 243.53736877 377.15838623 0 0 0
225.72386169 198.50805664 387.51126099 0 0 0
183.09982300 224.87495422 395.48455811 0 0 0
183.27513123 180.17431641 374.68914795 0 0 0
194.76310730 242.34902954 353.95642090 0 0 0
195.88568115 195.77273560 392.66009521 0 0 0
202.99259949 201.30633545 396.34671021 0 0 0
221.53433228 215.23146057 377.76977539 0 0 0
212.60063171 219.83105469 352.69467163 0 0 0
200.52354431 224.53982544 398.79150391 0 0 0
179.62478638 225.73202515 343.93191528 0 0 0
212.00329590 201.03437805 356.31250000 0 0 0
175.51127625 214.67417908 343.60354614 0 0 0
205.35559082 195.25213623 351.67758179 0 0 0
175.69743347 212.66438293 384.82092285 0 0 0
183.91867065 237.27453613 354.36309814 0 0 0
207.76257324 218.22306824 399.09716797 0 0 0
186.11975098 213.22766113 393.68966675 0 0 0
231.67567444 206.07690430 383.34701538 0 0 0
199.88368225 215.20428467 398.92950439 0 0 0
211.60946655 185.68551636 370.24722290 0 0 0
202.39953613 226.10125732 335.72500610 0 0 0
190.43299866 241.16290283 387.62814331 0 0 0
233.44105530 205.47795105 382.30804443 0 0 0
188.32788086 176.34365845 367.42346191 0 0 0
211.60226440 212.63304138 398.89358521 0 0 0
220.03359985 190.53004456 371.70617676 0 0 0
173.66296387 195.36915588 367.07873535 0 0 0
203.32478333 200.60766602 396.37023926 0 0 0
186.22528076 237.71606445 350.57635498 0 0 0
181.64318848 242.20596313 378.88980103 0 0 0
176.63540649 224.77276611 388.54797363 0 0 0
188.58178711 233.67707825 396.62893677 0 0 0
172.98152161 204.37509155 348.86315918 0 0 0
182.01330566 242.20104980 380.07943726 0 0 0
216.36361694 201.12745667 360.09606934 0 0 0
204.23153687 197.82862854 395.97726440 0 0 0
201.86622620 210.35836792 342.87225342 0 0 0
200.69667053 198.17477417 394.14776611 0 0 0
176.60910034 205.31997681 340.59649658 0 0 0
177.45770264 187.18562317 364.70468140 0 0 0
184.13650513 235.30162048 350.08865356 0 0 0
187.93998718 228.12683105 336.27969360 0 0 0
192.32127380 193.91482544 390.56787109 0 0 0
171.36700439 219.55953979 372.68286133 0 0 0
178.01560974 212.79560852 339.14773560 0 0 0
174.76214600 193.20166016 369.52053833 0 0 0
202.19508362 233.87663269 395.89318848 0 0 0
188.71153259 207.60339355 393.14871216 0 0 0
192.14292908 204.38011169 332.41955566 0 0 0
216.04974365 227.49140930 361.07839966 0 0 0
213.27441406 220.72077942 353.15069580 0 0 0
199.28086853 216.60766602 334.84536743 0 0 0
179.78457642 195.77195740 382.60409546 0 0 0
182.36859131 206.78863525 332.68817139 0 0 0
221.20231628 193.84007263 390.02676392 0 0 0
175.32101440 206.17593384 342.57254028 0 0 0
218.95301819 214.26473999 387.84292603 0 0 0
205.08586121 193.35700989 392.49169922 0 0 0
208.09931946 196.22265625 395.96414185 0 0 0
185.40846252 203.51348877 333.72329712 0 0 0
204.63368225 241.16497803 361.48422241 0 0 0
192.99954224 199.82942200 392.94674683 0 0 0
204.74761963 239.82104492 357.74288940 0 0 0
209.03237915 215.50837708 350.54202271 0 0 0
184.85363770 215.67475891 330.35839844 0 0 0
178.60180664 228.51916504 349.67123413 0 0 0
173.93093872 195.78471375 352.85134888 0 0 0
183.39044189 181.38377380 363.73101807 0 0 0
182.00563049 242.68978882 376.61727905 0 0 0
207.29924011 189.55627441 386.00524902 0 0 0
188.00247192 231.00080872 397.90731812 0 0 0
179.90377808 189.08856201 378.64160156 0 0 0
171.01647949 202.80982971 357.51666260 0 0 0
217.82041931 208.92089844 396.78302002 0 0 0
202.32617188 196.59977722 346.18380737 0 0 0
177.48570251 212.20681763 339.70184326 0 0 0
180.58567810 231.91215515 350.94424438 0 0 0
195.49694824 240.26307678 346.74853516 0 0 0
179.27825928 222.44287109 391.20919800 0 0 0
202.31074524 217.01441956 398.60104370 0 0 0
191.25331116 209.63528442 394.75106812 0 0 0
199.05361938 215.50164795 399.00909424 0 0 0
171.71171570 199.74240112 356.21694946 0 0 0
180.50254822 203.65441895 386.35104370 0 0 0
176.74110413 234.51748657 377.32946777 0 0 0
178.82554626 209.90536499 387.06796265 0 0 0
204.92236328 201.81916809 348.11352539 0 0 0
207.96025085 238.47445679 362.23873901 0 0 0
207.53857422 239.07496643 362.57046509 0 0 0
196.06761169 204.69708252 335.66754150 0 0 0
187.64048767 243.47485352 373.65734863 0 0 0
205.26440430 238.33641052 382.99206543 0 0 0
185.93879700 235.82118225 394.73406982 0 0 0
190.79586792 197.04406738 338.82885742 0 0 0
195.50044250 243.24612427 377.47125244 0 0 0
173.08598328 207.47354126 377.77465820 0 0 0
206.93489075 185.43023682 366.33886719 0 0 0
212.95722961 211.32791138 398.91070557 0 0 0
182.95883179 185.36383057 356.09231567 0 0 0
209.47698975 185.61683655 375.24691772 0 0 0
178.11845398 234.76879883 384.96655273 0 0 0
183.59089661 201.79710388 388.15850830 0 0 0
183.81088257 208.83457947 329.89999390 0 0 0
216.31379700 191.40702820 364.65057373 0 0 0
195.45039368 240.26925659 389.14553833 0 0 0
214.68676758 217.34324646 394.81378174 0 0 0
229.34706116 196.82945251 378.33233643 0 0 0
174.00502014 229.09187317 368.08392334 0 0 0
213.19169617 227.53727722 381.54129028 0 0 0
206.64677429 189.00849915 359.80645752 0 0 0
170.53587341 216.35295105 370.51428223 0 0 0
214.20028687 228.87452698 372.42300415 0 0 0
187.19978333 241.42591858 357.28253174 0 0 0
205.31962585 188.69720459 377.18280029 0 0 0
198.32452393 234.70539856 338.67486572 0 0 0
202.45069885 225.59262085 398.81762695 0 0 0
209.49613953 212.92393494 351.28063965 0 0 0
225.75534058 211.64785767 371.64559937 0 0 0
227.13069153 203.36338806 391.66870117 0 0 0
170.45233154 212.72456360 364.40499878 0 0 0
199.27206421 205.80868530 396.37149048 0 0 0
215.03750610 227.09863281 374.10369873 0 0 0
212.31257629 228.42666626 383.15023804 0 0 0
184.84663391 178.66317749 366.57424927 0 0 0
180.70188904 221.01005554 392.38543701 0 0 0
200.69718933 187.86528015 355.53463745 0 0 0
190.70530701 189.70664978 346.01742554 0 0 0
180.46929932 198.71279907 339.52944946 0 0 0
174.85122681 195.74134827 348.90469360 0 0 0
179.46243286 228.55938721 348.16577148 0 0 0
209.82337952 234.11407471 351.82598877 0 0 0
196.18598938 243.63990784 373.01022339 0 0 0
205.14102173 235.77441406 351.84335327 0 0 0
229.47851563 196.92471313 382.75662231 0 0 0
222.37002563 207.64465332 363.65310669 0 0 0
196.36889648 181.70785522 360.34869385 0 0 0
206.32546997 240.20533752 368.48019409 0 0 0
198.53059387 209.00988770 396.21713257 0 0 0
181.67120361 226.37626648 341.85562134 0 0 0
209.19802856 204.04557800 352.18481445 0 0 0
199.32281494 198.99674988 393.94409180 0 0 0
170.47422791 208.60308838 368.07345581 0 0 0
218.53326416 220.61540222 373.39456177 0 0 0
199.66154480 224.19607544 332.00170898 0 0 0
172.64674377 200.46051025 371.39907837 0 0 0
190.17498779 201.89089966 391.94467163 0 0 0
205.12672424 189.58850098 380.19024658 0 0 0
186.54187012 176.80183411 371.12994385 0 0 0
184.61386108 204.19837952 389.87545776 0 0 0
206.50978088 237.78578186 354.95660400 0 0 0
184.85791016 202.92222595 389.58709717 0 0 0
212.96705627 226.87138367 384.38378906 0 0 0
189.47944641 175.50675964 370.89593506 0 0 0
201.41751099 181.41900635 368.28894043 0 0 0
177.66818237 190.16320801 353.12594604 0 0 0
208.76489258 203.95112610 398.99658203 0 0 0
177.43312073 230.26861572 388.01416016 0 0 0
182.56544495 242.97148132 378.39065552 0 0 0
208.94097900 205.06188965 351.63992310 0 0 0
183.86102295 241.90237427 381.67114258 0 0 0
222.16195679 207.65489197 391.43032837 0 0 0
206.63131714 189.47833252 383.21569824 0 0 0
180.93609619 194.52897644 342.32879639 0 0 0
185.78936768 228.31457520 396.41073608 0 0 0
191.47869873 210.49424744 326.55587769 0 0 0
205.86689758 213.56028748 398.98599243 0 0 0
221.89047241 209.16346741 389.34152222 0 0 0
219.14881897 189.17517090 388.96392822 0 0 0
206.90132141 224.70524597 344.75546265 0 0 0
172.68992615 198.36903381 368.70562744 0 0 0
192.88101196 175.40414429 371.34979248 0 0 0
192.99244690 191.39645386 382.64297485 0 0 0
211.28344727 212.57821655 353.09280396 0 0 0
213.21145630 220.72679138 394.94055176 0 0 0
196.77023315 239.74609375 347.94741821 0 0 0
203.05122375 238.07522583 391.46197510 0 0 0
183.31822205 218.00695801 393.29946899 0 0 0
233.19377136 203.39027405 375.01751709 0 0 0
210.16540527 195.62869263 356.56527710 0 0 0
171.21345520 213.34951782 355.30319214 0 0 0
192.48797607 240.69548035 348.17285156 0 0 0
201.87454224 214.98893738 398.65155029 0 0 0
171.36294556 220.44490051 370.87780762 0 0 0
214.43544006 202.74981689 358.08169556 0 0 0
180.90867615 222.79747009 392.97146606 0 0 0
185.74041748 190.09539795 345.52645874 0 0 0
216.12506104 193.98106384 362.66384888 0 0 0
233.35368347 205.99325562 380.74594116 0 0 0
187.31465149 243.60687256 377.23147583 0 0 0
172.91609192 215.45355225 379.84454346 0 0 0
188.79626465 241.02845764 387.79061890 0 0 0
174.57640076 221.99414063 351.14245605 0 0 0
196.76176453 196.69253540 340.46908569 0 0 0
193.68682861 208.70498657 396.08129883 0 0 0
215.85733032 222.31861877 383.31066895 0 0 0
227.50244141 197.21717834 372.57086182 0 0 0
177.74229431 190.46559143 352.34869385 0 0 0
173.46440125 219.33572388 381.04739380 0 0 0
193.52581787 183.00166321 357.83078003 0 0 0
173.75521851 206.54667664 378.07727051 0 0 0
185.98503113 194.72529602 341.09085083 0 0 0
201.19708252 225.00201416 333.83737183 0 0 0
184.02688599 186.59724426 352.28613281 0 0 0
221.94586182 215.37509155 374.31213379 0 0 0
187.74980164 243.60235596 375.18569946 0 0 0
179.37631226 212.85809326 337.13766479 0 0 0
223.16213989 212.38677979 380.10980225 0 0 0
177.61880493 232.52749634 359.82678223 0 0 0
218.27500916 212.16584778 359.49841309 0 0 0
199.33276367 209.41027832 338.50085449 0 0 0
191.42567444 205.82098389 330.16485596 0 0 0
173.69883728 195.33357239 360.53027344 0 0 0
176.76210022 205.25730896 340.35345459 0 0 0
174.44412231 200.49148560 346.11154175 0 0 0
174.00880432 199.28366089 374.40972900 0 0 0
208.28723145 224.97058105 346.69824219 0 0 0
179.01815796 237.26979065 383.35998535 0 0 0
191.51737976 215.23554993 326.32220459 0 0 0
222.26451111 190.09625244 384.66525269 0 0 0
180.70150757 183.79910278 363.15438843 0 0 0
183.03305054 181.63256836 363.77114868 0 0 0
202.59945679 193.12525940 349.81433105 0 0 0
226.68563843 203.29563904 367.78118896 0 0 0
188.28248596 194.09342957 341.34283447 0 0 0
197.20634460 184.39414978 371.19390869 0 0 0
204.81881714 238.07836914 386.46264648 0 0 0
177.95976257 235.48986816 382.06771851 0 0 0
205.72067261 226.86714172 342.18966675 0 0 0
181.92399597 237.81501770 359.84387207 0 0 0
212.63862610 232.69844055 367.08743286 0 0 0
214.03349304 227.94197083 352.47027588 0 0 0
191.99798584 174.38606262 369.41799927 0 0 0
205.32881165 188.20184326 376.17910767 0 0 0
188.34497070 226.49212646 398.16180420 0 0 0
179.50512695 194.81452942 343.34860229 0 0 0
176.76016235 232.71250916 381.84701538 0 0 0
177.68600464 232.81758118 385.95770264 0 0 0
195.88786316 235.34416199 337.52117920 0 0 0
181.80107117 242.48841858 376.70391846 0 0 0
205.56413269 195.94371033 394.92065430 0 0 0
225.85169983 211.51342773 372.04687500 0 0 0
210.82603455 206.85624695 398.67654419 0 0 0
191.70523071 210.84941101 326.61047363 0 0 0
185.26934814 209.18264771 391.82168579 0 0 0
177.53330994 232.94390869 385.12805176 0 0 0
208.43255615 213.47885132 350.16833496 0 0 0
207.72912598 238.37478638 358.33285522 0 0 0
222.47969055 212.80651855 381.05941772 0 0 0
219.75279236 206.78599548 396.12887573 0 0 0
204.63365173 240.88362122 374.52246094 0 0 0
219.50944519 221.18923950 363.33679199 0 0 0
184.56597900 226.16566467 338.03775024 0 0 0
178.10040283 193.54862976 346.76382446 0 0 0
185.46250916 216.97676086 330.36688232 0 0 0
172.56352234 197.19857788 357.12701416 0 0 0
171.24975586 200.56378174 358.40820313 0 0 0
211.40328979 213.61117554 353.20639038 0 0 0
184.56262207 177.94407654 371.79580688 0 0 0
211.97453308 198.07789612 357.44863892 0 0 0
183.09500122 214.23594666 331.94641113 0 0 0
197.26376343 243.45297241 378.02792358 0 0 0
187.02618408 187.00796509 377.86880493 0 0 0
183.68382263 233.38644409 347.91589355 0 0 0
185.57559204 240.60784912 386.03207397 0 0 0
232.83041382 205.39408875 383.66906738 0 0 0
214.47207642 198.09732056 359.59271240 0 0 0
193.03976440 243.39036560 356.72015381 0 0 0
177.26779175 231.97000122 359.80276489 0 0 0
177.40577698 193.50085449 377.75985718 0 0 0
182.91642761 204.05859375 334.70101929 0 0 0
175.50624084 208.75842285 342.51626587 0 0 0
220.79718018 204.36836243 395.23037720 0 0 0
188.35269165 243.24180603 370.82324219 0 0 0
198.40771484 192.50456238 388.19586182 0 0 0
195.56838989 214.65286255 397.01586914 0 0 0
193.96847534 215.56224060 396.50851440 0 0 0
212.30142212 231.43090820 374.67416382 0 0 0
176.01414490 190.03620911 367.81216431 0 0 0
192.24278259 178.21275330 371.40539551 0 0 0
200.73818970 210.52258301 340.79956055 0 0 0
177.57952881 236.22625732 371.76235962 0 0 0
172.40463257 197.68388367 361.70242310 0 0 0
170.87051392 207.57618713 373.27737427 0 0 0
195.58697510 206.56005859 395.99392700 0 0 0
189.17866516 183.06283569 372.42547607 0 0 0
173.88958740 228.58222961 375.14218140 0 0 0
179.23596191 202.17729187 337.00079346 0 0 0
175.70480347 232.93898010 375.44519043 0 0 0
224.87059021 211.98593140 374.71221924 0 0 0
199.39840698 209.82565308 338.37139893 0 0 0
208.46255493 230.02958679 394.27587891 0 0 0
177.28880310 225.89082336 348.66882324 0 0 0
206.22865295 221.54824829 345.25582886 0 0 0
173.00994873 220.85910034 356.04815674 0 0 0
180.14872742 194.38993835 343.10919189 0 0 0
192.10906982 208.76115417 327.97204590 0 0 0
211.82115173 227.30503845 388.19464111 0 0 0
207.46710205 236.86070251 379.01113892 0 0 0
178.24211121 234.66534424 385.71679688 0 0 0
226.68879700 209.59550476 381.29449463 0 0 0
181.52859497 237.72903442 360.78836060 0 0 0
183.43527222 212.88473511 392.16738892 0 0 0
209.38796997 205.94476318 398.86743164 0 0 0
